ply
format ascii 1.0
element vertex 1156
property double x
property double y
property double z
property uchar red
property uchar green
property uchar blue
end_header
-0.096349 -1.403634 1.579866 220 186 142
-1.043578 2.051868 1.454059 126 111 88
-0.783680 1.219347 1.427841 128 111 85
-0.682279 1.079384 1.448407 127 110 84
0.714495 -2.180951 1.576465 199 168 121
0.461732 0.231639 1.558401 191 163 118
1.505004 -3.897514 1.474392 147 137 125
0.712354 -0.434089 1.572183 206 172 118
1.540307 -3.890710 1.475304 147 137 125
0.461246 3.032228 1.452087 124 109 88
1.380008 -1.102991 1.571380 201 178 151
1.753013 -2.831710 1.479202 153 141 119
1.597229 -1.875157 1.474298 143 132 115
0.585676 3.184253 1.449748 121 105 77
0.915948 1.595070 1.461359 124 110 83
1.700590 -2.057395 1.473054 146 134 118
2.315194 -3.605632 1.466547 162 153 135
1.988823 -1.766035 1.465477 139 128 111
1.072114 3.992998 1.459708 117 100 76
2.266038 -2.084862 1.473505 151 139 122
1.896207 0.179943 1.456850 133 122 104
2.578406 -1.977302 1.471286 137 130 119
2.428627 -0.726547 1.462707 136 123 106
2.645550 -2.016377 1.460591 144 134 118
1.663494 4.425488 1.376501 78 78 74
2.422241 0.145121 1.476230 134 122 105
2.393493 1.027814 1.479365 139 127 111
2.934346 -2.377152 1.470871 160 148 127
2.845201 -1.274744 1.464420 129 114 86
2.048800 4.561245 1.465359 104 87 64
2.698103 -0.019388 1.458808 145 133 113
2.773069 -0.261513 1.433796 135 123 107
3.151601 -2.661109 1.465295 131 118 102
3.083822 -1.671167 1.460353 137 122 105
3.187292 -2.334402 1.475873 156 141 123
3.059240 -1.264031 1.464783 141 129 112
3.103399 -1.601671 1.495184 140 128 110
3.075808 -0.392398 1.506381 133 120 104
3.281081 -1.815901 1.459786 145 132 113
3.319185 -0.969050 1.458300 140 128 112
3.498495 -2.043590 1.472437 158 144 124
3.496915 -1.840420 1.467532 152 141 122
3.573191 -1.035199 1.484545 135 126 111
3.775585 -1.350147 1.463431 129 118 102
3.847178 -1.892968 1.465510 129 115 94
3.895105 -2.128007 1.482777 158 145 128
4.043001 -2.688863 1.465391 122 106 84
3.810062 0.514121 1.393587 128 116 100
4.100493 -2.390423 1.462986 143 129 113
3.733103 2.570894 1.472621 118 101 76
4.346281 -1.020743 1.474444 130 115 95
4.406558 -1.389706 1.454352 132 122 106
-10.500984 0.838483 1.497154 89 72 44
-7.573501 -2.233503 1.474722 102 86 61
-9.373806 0.258029 1.458262 109 89 61
-5.360174 -4.258256 1.487215 110 98 78
-5.320239 -4.146927 1.487132 123 107 80
-5.325902 -4.119522 1.479120 115 95 61
-5.320034 -4.118862 1.480486 110 96 75
-9.505739 1.259697 1.477620 102 83 56
-2.816263 -6.424427 1.492507 124 106 75
-4.707476 -3.968270 1.487795 146 125 96
-2.717295 -6.117318 1.491343 125 109 87
-2.731448 -6.081221 1.486271 121 111 96
-4.000773 -4.295872 1.489545 128 107 77
-7.611099 0.923435 1.434207 114 92 64
-3.734581 -3.991026 1.490386 123 108 83
-4.236876 -3.271992 1.489993 126 112 85
-6.009811 -0.833973 1.484002 119 102 75
-3.898922 -3.593206 1.486004 123 108 86
-2.278825 -5.428993 1.487050 127 112 90
-4.809989 -1.791290 1.511384 123 108 86
-2.770286 -4.095732 1.483934 133 122 105
-5.269602 -0.464699 1.481587 118 103 77
-3.621210 -2.669373 1.481822 125 109 88
-3.200022 -3.162590 1.494390 131 120 100
-3.987342 -1.995062 1.492758 126 109 84
-5.002282 -0.488414 1.413805 121 105 80
-4.163055 -1.319127 1.492280 125 110 88
-2.111501 -4.195680 1.484563 137 122 102
-4.447038 -0.385733 1.429367 122 108 82
-1.594552 -4.669064 1.479957 137 120 99
-2.964453 -2.480541 1.578350 134 119 94
-1.027768 -5.322892 1.476363 139 130 117
-1.697445 -4.166877 1.487524 137 121 102
-2.933140 -2.197495 1.605653 136 118 94
-4.508017 0.633993 1.464408 123 105 76
-2.787319 -1.057975 1.590110 218 205 192
-3.082245 0.237397 1.607801 126 111 86
-2.372795 0.184638 1.621553 189 155 91
-2.922563 1.210636 1.476465 129 109 82
-0.115359 -3.363158 1.589413 211 197 187
-0.705498 -1.743372 5.719618 157 152 145
-0.719421 -1.694548 5.295302 97 88 76
0.654682 -4.412139 1.490292 146 136 120
-0.700511 -1.742653 4.664414 136 131 126
-0.655784 -1.639395 6.579213 136 129 121
-0.640226 -1.690563 4.369835 103 86 68
0.538835 -3.613955 1.573940 200 165 107
-1.339668 0.162139 1.461524 201 167 103
-1.240071 1.637300 1.461512 125 109 84
1.396930 -3.880484 1.474128 131 122 112
1.660326 -4.015374 1.480277 138 131 118
-1.239312 2.856160 1.454437 120 104 80
-0.845050 2.079003 1.447490 123 107 82
-1.288121 3.516052 1.430639 117 102 76
0.756549 -0.889418 1.535816 203 168 115
0.323149 0.441299 1.537993 195 164 114
1.698267 -2.610856 1.478212 149 137 118
1.475618 -2.003788 1.472188 148 143 132
-0.042113 2.132284 1.462007 122 107 85
1.475065 -1.422864 1.471179 133 122 106
0.467443 3.016269 1.464738 118 104 78
-1.108968 7.250108 1.465326 106 87 56
2.104504 -1.107258 1.437986 140 128 112
2.631197 -2.005241 1.469428 142 136 126
1.513594 1.224313 1.463984 130 117 95
2.272855 -0.614310 1.478284 134 122 105
2.680196 -1.489888 1.484469 146 133 117
1.976332 1.105122 1.464005 125 109 85
0.354451 5.944802 1.536439 110 94 65
2.552661 0.097976 1.480105 134 122 104
1.801096 2.546358 1.462596 122 108 86
3.084671 -1.092639 1.457977 138 129 111
2.679396 0.139676 1.466253 142 129 111
2.723685 0.125079 1.464277 119 104 89
3.157659 -1.142735 1.498204 141 129 113
2.744266 0.160979 1.460563 119 104 89
2.696151 0.700282 1.476513 127 114 95
2.287082 2.097566 1.466344 84 93 103
2.764041 0.765385 1.458384 133 120 106
2.937785 0.258836 1.471909 117 113 105
3.069152 -0.152768 1.485380 136 123 106
2.668737 1.850440 1.463222 132 120 106
4.390640 -2.794417 1.461929 135 120 103
2.203792 5.111572 1.472089 108 92 66
4.411195 0.100038 1.473916 128 115 99
4.208460 0.965307 1.464185 142 129 114
-14.545888 4.996104 1.241297 85 62 30
-16.945420 7.768048 1.517646 72 53 23
-17.130300 8.154284 1.628887 86 65 35
-19.867404 12.090304 1.468521 84 63 32
-10.474899 2.198280 1.459127 102 79 48
-13.034906 5.192217 1.479767 94 73 43
-9.487618 1.256889 1.490262 100 79 46
-9.481886 1.248575 1.495370 100 79 46
-15.672137 8.692730 1.550748 95 75 43
-15.677669 8.702707 1.447762 92 71 39
-12.097663 5.363676 1.486489 103 81 49
-12.216388 5.573334 1.483962 99 76 44
-12.218345 5.575299 1.481196 99 76 44
-16.266568 11.448353 1.483521 95 72 38
-11.175610 5.610487 1.474456 102 79 46
-5.304729 -1.366662 1.516593 121 106 82
-4.178307 -1.813741 1.510573 130 113 88
-14.888949 12.886647 1.506794 109 87 50
-4.186862 -1.627847 1.472957 125 108 81
-4.258871 -1.304140 1.474409 124 107 79
-12.622079 10.868319 1.492546 104 81 42
-3.218852 -1.681436 1.456209 134 119 99
-10.130225 9.248889 1.500798 111 88 51
-2.935919 -0.480360 1.561261 156 131 89
-7.878369 7.603759 1.472285 74 74 66
-7.870559 7.593998 1.479582 74 74 66
-2.520196 -0.032343 1.537321 186 151 88
-7.256819 8.178286 1.465386 117 93 58
-7.197377 8.142566 1.500397 117 93 58
-0.809340 -1.727980 9.568138 79 65 50
-0.698859 -1.732405 4.860823 96 92 82
-0.667077 -1.727646 8.916313 105 96 87
-2.071874 0.868066 1.485273 126 110 85
-0.647212 -1.662126 9.394753 229 224 222
-0.652328 -1.648466 6.765645 241 239 238
-0.641454 -1.663500 6.598165 225 221 219
-0.644188 -1.655998 7.451373 123 112 106
-0.648249 -1.639128 9.426925 89 78 63
-9.906517 16.233058 2.005455 80 61 37
-9.874412 16.409947 1.622914 89 67 43
-1.822494 0.928366 1.470911 129 114 86
-1.736554 0.801599 1.478067 125 111 89
-1.519365 0.603021 1.597418 131 113 83
-1.677102 1.038957 1.443665 128 114 89
-0.910342 0.278658 1.566951 223 210 194
-1.150342 1.094931 1.481706 128 111 86
-1.015734 1.018975 1.464176 128 114 89
-3.878500 7.244448 1.465304 113 92 58
-3.926470 7.369705 1.463089 112 91 57
-3.254444 6.883528 1.373951 117 95 63
-3.784507 8.254179 1.452141 115 93 58
-3.725717 8.104175 1.545387 115 93 58
-0.963626 2.309006 1.438843 125 111 85
-7.575279 17.447267 2.007927 96 77 55
-7.245512 17.618262 2.106073 48 43 39
-7.167807 17.806841 1.650468 37 37 42
-1.395376 4.316818 1.438822 115 99 71
-4.699608 12.419701 1.519842 111 90 54
-2.712322 7.811511 1.461705 113 91 57
-2.340451 8.243247 1.449044 113 92 60
-2.628137 9.571371 1.436040 111 89 54
-2.318941 9.332453 1.557867 111 88 54
-2.123288 9.056469 1.452717 106 82 51
0.586359 3.178929 1.453478 126 112 93
0.955229 2.691268 1.431130 123 104 78
-3.910167 17.428211 2.168827 30 23 15
1.343051 3.675354 1.450817 114 98 73
1.379070 4.872641 1.486033 117 97 67
-1.660804 15.538645 1.927383 18 16 9
2.233050 4.559980 1.477326 105 90 67
-0.266669 18.527130 2.252650 81 64 45
-17.323470 8.118296 1.158844 90 70 39
-22.802270 15.069956 8.076782 107 89 64
-22.634729 15.009920 8.127538 114 95 71
-22.167578 14.409971 6.614320 123 104 80
-22.743209 15.152297 7.397973 101 82 58
-22.761038 15.091744 6.768934 83 66 46
-22.819634 15.107569 6.333772 105 86 63
-22.732683 14.947352 4.574586 114 94 73
-22.810840 15.114784 4.046352 126 105 78
-22.730302 15.112331 3.962976 94 71 45
-22.675296 15.120272 2.864192 131 114 90
-22.940996 15.359278 2.647537 111 96 78
-16.328182 8.852023 1.229186 101 79 45
-12.772313 5.259150 1.491718 92 69 39
-12.774922 5.261463 1.489427 92 69 39
-12.729716 5.361328 1.469315 95 73 44
-18.561856 13.359513 1.558503 92 70 37
-18.988642 16.412956 7.183235 129 104 78
-19.052477 16.607847 7.386717 125 97 67
-18.821640 16.800230 8.019079 116 98 74
-18.396878 16.669254 7.218239 85 68 47
-18.464570 16.871382 7.415941 128 103 66
-7.556368 3.245251 1.488552 117 97 64
-12.515179 10.423108 1.447068 112 88 51
-12.306958 11.691654 1.479453 105 81 41
-10.146584 9.020454 1.474706 110 85 50
-7.601958 5.725557 1.475334 96 79 49
-10.582734 10.393707 1.504615 118 95 56
-14.886199 18.524939 6.652062 125 106 84
-14.796536 18.511722 4.053993 154 134 110
-0.802656 -1.765461 12.519512 106 92 75
-0.699843 -1.741344 12.539705 202 200 196
-0.690807 -1.727393 12.313218 181 180 178
-0.682501 -1.714957 10.574602 128 124 119
-0.669406 -1.712685 12.185067 176 174 172
-0.663371 -1.714354 10.025895 114 107 100
-0.666096 -1.711025 11.924439 171 170 166
-0.658711 -1.709195 11.387622 222 217 213
-0.659130 -1.704163 11.878932 242 239 238
-0.652677 -1.699483 9.678907 106 98 90
-0.642701 -1.691210 11.969584 147 140 134
-0.641977 -1.670046 8.169800 97 89 74
-0.638376 -1.696892 12.064183 145 138 133
-0.649365 -1.655143 8.827369 225 221 218
-0.637581 -1.688235 11.973399 147 140 134
-9.650447 16.487995 6.492484 95 78 58
-9.569553 16.341668 7.120553 102 68 40
-9.608985 16.386746 8.831449 92 61 33
-9.552526 16.322546 7.249105 125 105 87
-9.473161 16.323291 8.222934 93 64 42
-9.371233 16.243162 8.059484 95 79 62
-9.413141 16.351207 8.872352 116 102 91
-9.375044 16.336608 7.059331 94 79 60
-9.313170 16.305236 7.284132 100 82 68
-9.310455 16.335073 8.068063 94 79 62
-9.264813 16.307958 6.863799 94 80 61
-9.266417 16.362879 8.270528 110 98 84
-9.235893 16.414247 8.184639 103 90 75
-9.045607 16.158670 7.472005 177 157 134
-9.163770 16.472433 7.960663 176 155 131
-9.157693 16.540616 7.445409 164 139 115
-9.380949 17.075912 7.150985 160 138 115
-8.634720 15.621286 7.719430 164 139 115
-9.261342 16.927867 7.239594 162 129 105
-9.161089 16.692021 9.023805 167 160 156
-9.008321 16.452813 7.945943 175 141 114
-8.997481 16.475292 6.974694 169 144 116
-8.934847 16.433980 6.829859 163 138 112
-8.938742 16.494878 7.215744 145 119 89
-8.844771 16.302401 7.448159 200 193 181
-8.962025 16.553163 7.319700 145 117 91
-8.892511 16.427582 7.867807 165 139 112
-9.204316 17.100507 8.508012 190 165 133
-9.027521 16.731044 8.802952 119 99 78
-8.920124 16.543760 8.060033 155 121 98
-8.819018 16.485455 7.412182 157 131 101
-9.106960 17.035041 8.528283 189 163 134
-8.822405 16.551826 8.069649 100 78 54
-8.866040 16.687808 7.011376 135 108 77
-8.789004 16.567630 8.090030 98 75 47
-8.678885 16.354946 8.820477 116 95 70
-8.804659 16.647262 8.582796 126 108 89
-8.858436 16.870934 8.510304 147 127 102
-8.662640 16.615939 8.694535 205 180 149
-8.731711 16.905433 8.723456 94 79 58
-3.878685 7.246966 1.456009 109 85 56
-1.093319 1.346716 9.428913 60 58 56
-1.161008 1.493956 9.437304 169 174 179
-3.998901 8.982567 1.449129 110 85 54
-7.504742 17.236752 3.114563 119 102 82
-7.482910 17.483954 2.075355 106 89 70
-7.589030 17.320425 8.812358 131 117 100
-7.337177 17.235797 6.807120 146 121 90
-7.414838 17.453080 7.085502 138 113 81
-7.360513 17.236944 8.182450 160 132 103
-7.386368 17.322910 7.904547 153 124 92
-7.263079 17.118334 7.316079 148 121 90
-7.329948 17.164363 8.903517 116 89 63
-7.317052 17.412986 7.595032 160 131 102
-7.295186 17.298710 8.933480 120 101 82
-7.178822 17.224871 8.192152 108 86 65
-7.229097 17.386563 8.626606 170 144 116
-7.033653 17.402596 3.728373 92 60 32
-7.274532 17.522835 8.943213 125 106 87
-7.149437 17.283195 8.762952 135 122 112
-7.335207 17.893875 8.165111 125 105 86
-7.088514 17.394640 8.474750 163 140 114
-2.545045 7.380518 1.501628 117 97 65
-6.935389 17.445845 7.019288 164 141 117
-6.984490 17.595751 7.245963 165 142 117
-6.759328 16.929711 8.609386 170 149 126
-6.908485 17.521415 8.638148 172 148 121
-6.712866 17.621051 6.737357 101 89 78
-2.698351 8.314866 1.436207 115 93 61
-6.742086 17.695251 8.094310 115 104 95
-6.656364 17.779971 8.397823 120 112 103
-6.438374 17.685351 7.873021 117 107 97
-6.317374 17.621936 6.946464 106 94 82
-6.461862 18.069514 8.267428 119 107 96
-6.327232 17.915262 8.169995 112 86 64
-6.205553 17.783303 8.287062 110 101 91
-6.189290 17.844287 8.188781 111 99 86
-6.170137 17.735956 8.801071 123 109 98
-6.189002 17.880748 8.523974 124 114 106
-2.438088 9.068758 1.519832 112 88 55
-6.026384 17.674264 8.068807 116 103 94
-6.169673 18.182296 8.601136 120 111 102
-5.941464 17.887396 8.088488 108 89 73
-5.766686 18.160673 8.820968 126 119 113
-5.500964 17.922487 6.536416 93 83 73
-5.538035 18.198284 7.128034 99 89 80
-5.597805 18.222110 8.213152 104 97 88
-5.469687 18.136759 7.060750 105 97 87
-5.627461 18.309853 8.832221 126 121 116
-5.418466 18.205045 6.491712 93 60 30
-5.488858 18.158206 8.507946 101 91 81
-5.503551 18.183988 8.701322 112 103 94
-5.429174 18.226875 7.224586 87 73 62
-5.473644 18.252417 8.531347 97 87 76
-5.416158 18.042818 9.007860 115 106 97
-5.433386 18.218514 8.585075 97 87 76
-5.472029 18.503173 7.889423 94 84 73
-5.262653 18.252596 6.128046 92 80 68
-5.185542 18.134500 6.944096 93 81 67
-5.229181 18.232820 7.561112 97 75 54
-5.305023 18.487761 7.915118 104 95 85
-5.321460 18.363469 8.873669 104 94 83
-5.168722 18.176820 8.357990 121 109 95
-5.310215 18.652227 7.985870 120 111 103
-5.150435 18.253653 7.700947 103 90 79
-5.261263 18.466186 8.413732 105 94 82
-5.228749 18.434107 8.511113 84 71 58
-5.253190 18.579638 8.173554 98 86 73
-5.195804 18.388210 8.388122 114 102 89
-5.266580 18.515201 8.759572 101 90 77
-5.156425 18.160296 9.080283 98 86 72
-5.111711 18.350381 7.911183 102 92 82
-4.953777 18.188742 6.555337 88 51 23
-5.140092 18.504441 8.105394 91 79 66
-4.949341 18.598759 8.666845 94 80 64
-4.313688 17.667374 7.259696 78 66 54
-4.617175 18.821001 8.783238 99 86 74
-4.497834 18.679365 8.095412 87 73 60
-4.613024 18.920021 8.808935 101 88 76
-3.283520 20.571221 8.505034 66 55 41
-24.671759 15.682059 10.656507 177 151 119
-24.524757 15.652839 10.970521 143 112 69
-25.359086 16.356356 9.972678 45 43 40
-24.464516 15.625220 10.553137 116 92 69
-24.435284 15.617356 10.419306 128 100 60
-25.470665 16.591029 9.951687 65 65 63
-24.399942 15.722823 10.774034 167 126 69
-25.033309 16.296540 9.901508 33 33 32
-24.636431 16.066224 10.907918 82 55 27
-24.530869 15.980416 10.503824 60 28 11
-24.267653 15.857858 10.621974 89 62 37
-24.272073 15.861517 10.622072 89 62 37
-24.333615 16.039473 10.786881 133 102 60
-23.875627 15.785298 9.659443 101 78 48
-23.930625 15.921961 10.392474 108 83 52
-24.350246 16.397588 10.865110 164 129 73
-24.346047 16.393714 10.866254 164 129 73
-24.092366 16.186238 10.669391 95 71 47
-23.989750 16.085721 10.554479 84 64 42
-23.690165 16.265355 10.279860 139 106 65
-22.831948 15.338869 9.423360 86 78 68
-23.132032 15.303796 6.184145 104 89 69
-22.752423 15.172006 7.395527 146 124 96
-23.095619 15.767150 9.585445 126 97 59
-23.514827 16.276868 10.051089 160 127 86
-23.465413 16.272993 9.948047 161 130 90
-23.445398 16.309351 10.065368 159 124 79
-23.413958 16.297500 9.994871 163 133 90
-22.795126 15.075542 3.943609 101 81 53
-23.342000 16.280629 10.048027 163 133 90
-23.369745 16.350343 10.291091 171 138 96
-23.366874 16.327184 10.101830 163 133 87
-22.697848 15.443504 7.969372 106 88 71
-23.364173 16.382135 10.452784 178 146 101
-23.367359 16.385497 10.451676 179 148 99
-23.332530 16.366865 10.206080 165 132 88
-23.344143 16.379290 10.203832 165 132 88
-23.139702 16.143661 9.945126 156 125 85
-23.353009 16.432392 10.428130 185 153 105
-23.302045 16.380068 10.131529 171 141 98
-23.292838 16.371556 10.133497 172 138 92
-23.288231 16.432574 10.424394 179 148 105
-23.389456 16.576771 10.701411 194 161 116
-23.373149 16.560466 10.704556 194 161 116
-23.224804 16.389534 10.110199 171 141 98
-23.280624 16.510990 10.443532 191 159 112
-23.204628 16.426908 10.372586 184 154 113
-23.378760 16.625017 10.539571 196 164 121
-23.150614 16.359762 10.060994 178 149 103
-23.117620 16.328832 10.067439 180 142 89
-23.176678 16.432797 10.146970 178 149 103
-23.165787 16.481118 10.390399 184 154 113
-23.057017 16.502983 10.197370 181 148 103
-23.162292 16.660139 10.743774 184 151 101
-23.036886 16.743698 10.552562 174 142 94
-22.940060 16.650133 10.567541 174 142 94
-22.869290 16.621105 10.713335 195 162 115
-22.423212 16.258742 9.653418 174 140 86
-22.653757 16.612893 10.348321 191 159 109
-22.396853 16.386964 9.938990 170 134 79
-22.632844 16.700998 10.247321 189 155 104
-22.091732 16.237862 9.901390 189 152 99
-22.448098 16.740053 9.992544 162 127 76
-22.410022 16.802764 10.427643 162 132 91
-22.708168 17.209909 10.565010 185 153 97
-21.211030 15.656510 8.633656 134 114 83
-21.949160 16.597977 9.912530 76 54 31
-21.341131 15.894583 8.595955 154 126 95
-21.871656 16.629036 9.996733 76 54 31
-21.862950 16.620064 9.997535 76 54 31
-21.783086 16.578167 9.822122 78 56 29
-21.827098 16.716569 10.000703 80 62 36
-21.690294 16.768693 9.982775 83 61 37
-22.255384 17.433421 10.400459 28 21 13
-21.792937 16.933372 10.067381 58 43 24
-22.378692 17.962076 10.611649 61 44 26
-22.353916 17.934806 10.615394 61 44 26
-22.365355 18.008053 10.395596 94 71 41
-22.410090 18.126755 10.440647 94 71 41
-20.483667 15.897740 8.630723 117 89 58
-20.509489 15.926277 8.618727 118 90 55
-20.505364 15.923926 8.619761 118 90 55
-20.387180 15.911733 8.658531 117 85 49
-20.385302 15.910349 8.659293 117 85 49
-20.339251 15.922308 8.628742 146 121 87
-21.272022 17.255302 10.827892 116 94 63
-21.605825 17.688329 10.832821 106 83 50
-21.268643 17.518990 10.902568 113 89 58
-21.191654 17.611102 10.538815 80 56 28
-20.847660 17.308945 9.999500 146 110 68
-20.928749 17.524587 10.920273 127 91 53
-20.915649 17.588050 10.442711 128 94 60
-20.715296 17.409764 10.714837 175 117 76
-20.512470 17.139040 10.114240 149 120 75
-21.234850 18.079782 10.926951 83 60 35
-20.662036 17.389167 10.332668 156 117 70
-20.803621 17.611590 10.525932 174 125 78
-20.210500 16.877288 9.891169 125 104 62
-20.485370 17.246598 10.370070 156 117 70
-20.133940 16.895733 9.859614 133 114 71
-20.430909 17.292179 10.247122 154 128 81
-20.244965 17.059153 9.954119 137 118 79
-20.098936 16.871528 9.695692 145 122 77
-20.724413 17.672613 10.457510 165 116 71
-20.597469 17.523557 10.324099 153 112 65
-20.791634 17.775076 10.356086 153 112 65
-20.245891 17.173103 10.140758 139 116 70
-19.941150 16.868328 9.827473 149 128 87
-20.007750 17.115557 9.910653 196 165 118
-20.000975 17.107894 9.910776 196 165 118
-21.963976 19.586207 11.506457 111 91 65
-20.202897 17.393934 10.129572 184 154 105
-20.254653 17.482829 10.261868 167 131 81
-19.976824 17.226679 9.967003 176 140 90
-20.076257 17.383481 10.115404 193 163 113
-19.930106 17.221647 10.017042 176 140 90
-20.006265 17.325650 10.062728 193 163 113
-20.408346 17.839868 10.456155 183 112 64
-20.413672 17.845658 10.458300 183 112 64
-20.202524 17.582592 10.221183 182 146 92
-20.137867 17.506251 10.235592 188 152 95
-20.054854 17.477807 10.164026 192 161 109
-20.201045 17.737033 10.353372 182 122 72
-20.466773 18.073070 10.499497 197 125 79
-20.169234 17.808423 10.393761 181 108 61
-20.502468 18.267609 10.469535 185 111 67
-20.809367 18.678891 10.625090 122 84 56
-19.751109 17.385896 9.909826 201 169 115
-19.753772 17.389542 9.909276 201 169 115
-19.920431 17.658391 10.305264 206 157 104
-19.674554 17.416151 9.904455 192 163 105
-20.447530 18.429973 10.716693 115 82 53
-20.423057 18.569414 10.683151 101 74 49
-20.124475 18.183306 10.220925 198 154 100
-19.956024 18.095261 10.254004 165 121 73
-19.321053 17.336385 9.795871 170 145 97
-20.599917 18.969519 10.502605 115 82 51
-19.523246 17.772082 10.061108 197 162 105
-19.330723 17.674733 9.962352 177 145 88
-18.808616 16.818976 2.804919 143 120 93
-14.609762 11.470263 1.503221 103 79 45
-21.809713 22.518939 12.437457 80 60 35
-17.785905 17.318960 11.504191 143 98 52
-16.616490 15.231767 1.533771 92 72 39
-17.788829 17.623178 11.483014 154 103 50
-17.638113 17.459964 10.271014 102 75 48
-17.641436 17.463188 10.270139 105 77 51
-16.488718 17.812848 10.796457 68 51 32
-16.349977 18.490546 11.514559 171 120 54
-15.530993 17.311292 11.423204 125 86 45
-15.469486 17.303285 11.451489 183 129 51
-16.376729 18.543856 1.474340 67 52 33
-15.960078 18.658458 9.306282 107 103 94
-18.864107 23.631718 11.900122 137 111 85
-15.018370 17.978527 10.219528 142 120 94
-14.740146 17.982776 9.620048 100 89 76
-14.794165 18.394894 4.009875 129 110 80
-14.676689 18.506982 7.956900 120 108 91
-14.664925 19.341229 10.316824 105 49 9
-14.743476 19.635896 11.169365 135 91 44
-14.645718 19.549805 10.257920 102 47 6
-13.992486 19.301417 10.088296 162 78 51
-1.134899 -2.010423 14.512345 183 164 144
-13.751554 19.503021 9.907609 122 20 8
-15.041736 23.616732 11.893794 130 110 85
-0.835666 -1.701270 12.200452 87 73 55
-0.731183 -1.752002 10.842087 146 135 126
-0.729005 -1.688372 14.271205 173 156 140
-0.703824 -1.748580 11.237193 158 147 140
-0.722472 -1.664041 14.296953 138 114 93
-0.717742 -1.645795 14.310684 146 134 121
-0.683102 -1.698827 13.042052 173 167 160
-0.661354 -1.702868 10.446568 104 96 87
-9.974223 16.255751 9.921224 89 75 54
-9.853726 16.247055 9.472809 119 107 96
-9.807033 16.347677 8.923210 95 81 68
-9.730171 16.259794 9.936721 129 111 100
-9.599879 16.224036 7.897968 76 58 37
-9.648001 16.449508 10.256807 128 101 63
-9.436730 16.221838 9.300894 104 93 83
-9.462464 16.297388 8.835059 96 66 38
-9.403404 16.225597 7.834559 100 88 72
-9.357303 16.321419 6.773352 79 67 50
-9.223630 16.375400 6.828016 152 132 107
-9.149325 16.348923 6.750696 125 109 86
-9.125188 16.399172 6.795511 138 118 95
-8.947197 16.520683 7.324002 155 121 98
-7.979552 17.493679 10.183266 138 104 64
-8.675339 19.113230 11.678396 124 78 32
-7.727111 17.142053 9.648070 95 84 76
-7.668153 17.311482 9.210745 123 116 108
-7.665497 17.306822 9.919206 159 152 145
-7.591706 17.294855 9.590868 119 109 98
-7.219409 17.435767 10.271440 154 107 56
-7.143257 17.377147 7.612000 145 123 97
-11.128523 27.229067 13.018444 152 139 121
-11.103008 27.275788 12.394044 134 122 109
-7.074468 17.435780 9.541870 105 69 38
-10.987444 27.218917 12.827304 160 146 127
-7.011179 17.473692 9.820841 149 139 134
-7.137446 17.817603 10.211503 155 109 57
-11.015312 27.473408 13.251471 150 136 120
-6.925334 17.532259 7.769652 147 127 104
-6.908507 17.700921 10.227819 152 112 63
-10.548238 26.936611 13.167125 82 78 73
-6.829467 17.807757 9.523082 135 127 119
-10.421804 27.436718 13.044907 103 96 85
-6.557970 17.920430 9.943090 136 119 102
-6.328083 18.031146 9.558850 111 72 37
-6.304950 18.019851 9.911221 78 63 52
-6.167669 17.828258 8.551436 116 109 103
-6.145177 17.969760 8.277013 112 107 102
-6.059169 17.869485 8.187826 98 90 84
-6.051096 18.000077 7.861561 105 97 89
-6.103048 18.085405 9.955429 133 120 106
-9.338780 26.802273 13.398433 104 100 97
-5.816155 17.700609 6.764929 83 75 64
-9.154386 27.199323 13.529109 140 117 90
-9.119562 27.324344 13.655256 108 90 73
-5.783765 18.218713 9.632616 153 144 136
-9.055473 27.424165 13.843122 85 62 31
-5.747391 18.284369 10.222735 141 116 89
-5.722863 18.270053 9.643542 157 148 141
-5.702546 18.316690 9.605092 157 148 141
-5.624647 18.244401 8.409528 121 118 115
-5.548835 18.085289 8.099390 112 108 104
-5.583372 18.109113 9.107585 117 111 106
-8.800017 27.293211 13.481196 59 58 52
-9.023168 27.920876 14.145222 119 95 62
-5.396193 18.377359 9.083707 111 101 93
-5.311052 18.448942 7.965859 100 94 87
-5.253000 18.404819 9.313806 96 84 69
-5.211079 18.360101 8.706164 87 77 68
-5.223319 18.402547 9.217239 97 86 72
-5.670856 19.729879 10.397001 123 75 33
-5.116489 18.340926 7.960223 114 106 102
-5.168995 18.588540 9.700883 88 76 63
-5.145704 18.527012 9.621839 89 74 59
-5.193316 18.674437 9.850114 95 80 65
-5.067407 18.459202 8.778410 93 81 65
-5.039296 18.463677 8.426037 84 71 56
-5.116134 18.665019 9.704895 102 90 78
-4.870917 18.802320 10.193332 141 120 97
-4.811821 18.904559 10.082212 138 131 125
-4.701184 18.836177 10.099134 129 120 111
-4.620025 18.822640 9.596569 107 99 94
-4.561958 18.967457 10.012725 107 91 75
-4.497134 19.066042 10.110927 95 84 68
-7.562444 28.928530 13.825149 151 130 104
-7.474544 28.771115 14.127763 135 115 91
-7.201618 28.619827 11.654172 143 124 103
-6.945322 28.017314 13.750770 71 58 34
-1.886849 15.088967 1.880783 34 28 16
-27.499665 18.021174 19.498556 102 77 36
-27.516687 18.031174 19.502013 102 77 36
-27.256248 18.332960 22.092675 38 34 26
-24.790023 16.047826 10.830791 133 98 59
-26.923617 18.317877 19.596504 107 82 44
-26.674182 18.127157 22.030684 66 49 33
-28.273543 19.675691 22.781117 64 58 42
-24.684409 16.106889 10.054449 60 56 53
-26.604890 18.480085 19.466234 108 85 48
-26.668821 18.588792 19.328654 98 74 35
-26.436058 18.430194 22.146570 78 58 35
-26.409661 18.405867 22.139753 78 58 35
-26.336467 18.338263 16.009084 135 115 89
-26.395130 18.853412 19.248876 123 99 59
-26.058900 18.648032 22.120880 72 44 22
-27.400073 20.098455 12.503419 115 92 62
-27.445297 20.157320 12.308664 117 92 63
-25.560256 18.601545 22.140306 72 49 24
-26.984749 19.947641 16.042058 135 114 90
-23.433233 16.301380 10.064919 170 141 104
-24.891967 18.004671 16.835765 119 93 57
-23.377119 16.311485 10.177157 165 132 88
-24.897960 18.097862 18.941116 138 113 78
-23.287529 16.292655 9.992131 163 133 90
-24.970286 18.218782 18.873776 97 80 58
-22.733823 16.304457 9.921386 196 164 107
-24.313123 18.518299 16.795372 107 87 59
-24.209993 18.467764 16.927269 87 66 36
-24.161193 18.501462 16.913633 121 100 67
-24.156307 18.503945 17.447787 145 117 80
-24.193547 18.610940 17.566239 155 129 89
-26.166481 20.722037 16.032741 115 94 67
-21.803150 16.713097 9.591446 135 102 56
-23.496388 18.864856 16.892597 111 88 58
-23.397409 18.930168 18.991045 101 89 65
-23.440276 19.155774 19.353906 135 111 71
-21.541145 17.031644 9.797166 74 55 30
-23.252670 19.253799 19.363799 141 118 78
-23.036111 19.350617 19.363250 144 119 75
-23.050931 19.388041 20.166843 154 53 27
-23.030617 19.366710 20.161682 154 53 27
-22.994755 19.408930 20.089459 151 71 35
-23.006410 19.450033 19.993816 149 82 48
-23.007830 19.457229 19.940801 149 82 48
-22.949580 19.499168 19.993848 149 82 48
-22.988854 19.639817 19.996969 151 85 50
-22.937805 19.592082 20.071327 156 83 49
-22.881104 19.614222 20.154602 152 54 28
-22.861039 19.656842 19.931783 153 85 48
-22.537850 19.274970 18.079992 121 105 70
-22.872736 19.691915 20.080303 157 81 50
-22.489107 19.271177 17.667613 162 138 75
-22.461472 19.261651 17.528409 191 163 79
-22.860833 19.773704 20.160313 158 84 52
-22.427200 19.304804 17.852679 176 157 70
-22.836542 19.837333 19.990854 154 87 52
-22.594246 19.550802 19.360647 142 119 75
-22.834368 19.843734 20.080134 158 84 52
-20.407007 16.869572 9.777280 133 106 60
-22.356926 19.345697 17.689727 170 150 62
-23.635134 20.850181 17.137047 76 62 25
-22.298615 19.334702 17.854087 175 153 68
-22.302184 19.347955 17.770708 171 150 64
-22.231546 19.372361 17.931312 189 163 80
-22.754021 20.025786 19.989897 150 81 47
-22.747401 20.022035 20.078599 153 84 50
-22.952293 20.287213 22.251342 66 49 23
-22.155478 19.407124 17.720752 173 153 66
-22.730472 20.112529 19.998300 142 71 38
-22.700378 20.091363 20.155534 149 85 52
-20.743609 17.682134 10.624082 184 125 78
-22.680299 20.181318 20.002999 142 71 38
-22.062343 19.452059 17.726068 165 147 62
-21.973482 19.384514 17.557716 196 166 79
-22.712757 20.285206 20.342730 119 44 21
-22.033672 19.462597 18.049878 189 160 74
-22.030898 19.479425 17.937742 178 154 70
-22.023584 19.480063 17.879963 178 154 70
-23.314014 20.996413 16.966450 76 62 25
-22.775141 20.468941 22.155315 104 79 43
-21.950335 19.493591 17.838763 181 157 76
-22.082628 19.785877 19.390084 138 120 74
-20.054796 17.235384 10.044872 180 150 104
-20.200661 17.465411 10.217187 180 148 95
-20.034496 17.340493 10.124735 193 163 113
-20.261851 17.708938 10.320337 182 122 72
-21.878239 19.807714 19.380470 144 122 77
-19.885183 17.323402 9.886599 195 163 114
-19.896984 17.347239 9.964756 189 158 110
-19.838219 17.278655 9.884266 195 163 114
-19.875089 17.489074 10.027771 199 169 113
-19.668886 17.411426 9.904850 192 163 105
-20.261108 18.159804 10.392947 185 113 70
-21.534058 19.978500 19.394307 143 120 75
-22.132759 20.721794 19.876000 63 39 20
-18.767545 16.751703 9.382331 103 97 90
-21.052640 19.918614 21.500776 133 110 75
-20.970567 19.807200 18.972807 125 111 82
-19.470952 17.817901 10.030047 182 154 97
-21.093983 20.023130 19.422045 135 116 72
-20.892801 19.864143 22.251197 83 65 37
-20.899586 19.911823 22.393415 95 78 48
-20.940650 19.926127 16.863358 93 75 45
-19.700928 20.067696 17.090053 153 127 94
-20.951800 23.122083 17.056252 83 73 51
-16.496727 18.013286 11.500034 175 134 70
-19.741074 23.304362 11.482392 118 99 73
-15.475926 17.452438 11.392859 161 120 59
-18.119496 22.404989 22.053362 97 74 39
-16.882908 21.561386 21.879030 114 88 47
-15.684937 20.142586 10.507995 133 103 72
-14.922388 19.018651 11.272466 139 99 44
-16.207764 21.831320 16.914098 150 125 88
-13.138188 19.018148 8.654255 132 110 83
-14.022204 21.919156 11.013121 57 42 23
-9.853731 16.243516 9.412043 111 97 88
-12.962997 23.249040 21.858047 75 48 19
-9.418808 16.444132 7.947380 92 78 63
-9.231409 16.287692 6.818271 120 103 84
-9.507362 17.053247 8.836815 152 151 150
-9.029820 16.486889 8.025859 161 137 111
-8.964072 16.504743 8.428650 159 135 109
-11.967457 25.724354 19.824675 113 92 57
-7.937886 17.002192 9.937886 107 82 50
-7.796619 17.210586 9.216494 119 110 106
-7.780384 17.178488 8.850739 126 114 108
-7.607666 16.949370 9.314427 114 107 98
-7.508953 17.271761 10.299345 154 110 56
-10.688066 27.481967 13.398469 52 61 45
-10.633968 27.396634 13.205343 68 63 59
-6.380205 18.035356 9.950684 134 117 101
-9.278692 26.406444 13.541538 154 135 110
-8.838135 26.839665 13.428801 50 48 44
-9.046772 27.924984 14.260710 128 98 71
-5.406748 18.680903 10.078754 140 123 104
-5.271712 18.421533 8.756204 95 85 76
-5.354719 18.636223 9.901410 130 114 101
-5.045826 18.479809 8.419702 84 71 56
-5.362092 19.515321 10.447100 116 69 29
-4.655827 18.843849 9.028134 109 102 97
-4.600739 18.900550 9.434925 102 93 89
-4.553356 19.065390 10.253733 141 107 62
-22.951465 8.653482 14.150388 111 87 55
-23.041606 8.727784 14.658435 117 89 54
-19.424308 6.203495 10.686923 187 154 101
-19.531736 6.267810 10.566221 132 100 54
-22.937868 8.658195 14.350378 114 84 46
-23.022006 8.728000 14.535298 68 50 27
-22.941168 8.657506 13.728847 97 83 65
-19.371410 6.198946 10.647364 187 154 101
-22.984455 8.683644 13.025667 116 106 92
-22.966938 8.673118 13.026941 116 106 92
-19.383688 6.236308 10.721191 226 186 117
-32.145972 15.023932 23.431271 112 84 50
-22.940903 8.714170 14.069725 120 106 88
-23.058971 8.829629 14.466693 147 115 69
-22.942718 8.708210 13.079175 126 111 91
-22.943850 8.708905 13.079421 126 111 91
-21.061985 7.397472 11.295564 83 60 33
-22.994466 8.799404 14.528743 104 80 45
-32.204891 15.128188 23.401315 97 76 45
-19.457473 6.339342 10.660962 196 159 100
-19.419267 6.333203 10.732403 226 186 117
-20.364894 7.008286 11.146484 123 99 68
-32.340112 15.194551 17.448002 122 97 56
-19.108525 6.174836 10.313781 194 159 91
-32.222963 15.139090 16.920213 123 94 52
-19.353785 6.372291 10.330686 120 91 49
-22.615275 8.797842 14.430953 155 122 75
-22.607213 8.794794 14.430256 155 122 75
-19.269229 6.437073 11.077212 195 172 145
-20.874819 7.520143 11.285804 83 68 48
-19.094495 6.294251 10.360334 141 109 58
-19.228765 6.390137 10.231074 161 126 65
-19.272315 6.423128 10.165130 100 76 39
-20.723065 7.472382 11.543938 78 57 30
-28.441045 12.482344 7.140756 104 82 57
-19.053237 6.352413 10.413024 181 148 91
-28.416906 12.543193 7.172034 84 64 36
-28.401285 12.535794 7.175875 84 64 36
-20.749800 7.564576 11.316401 81 60 31
-19.907862 7.000202 11.168962 127 98 64
-20.713020 7.560283 11.231945 86 67 38
-20.624545 7.521628 11.548846 112 88 54
-19.191980 6.539156 10.913721 202 165 108
-20.599577 7.520896 11.402606 108 83 51
-19.017173 6.410281 10.250129 127 97 52
-28.345944 12.646316 7.175206 112 87 59
-20.540142 7.571865 11.536488 81 59 29
-19.658513 6.916714 10.155167 101 75 44
-28.332281 12.630943 5.450833 102 82 57
-20.470914 7.555678 11.356267 87 67 39
-20.451840 7.661936 11.361983 110 85 54
-20.470255 7.732308 11.495511 106 80 43
-31.500888 15.615008 21.662758 105 89 61
-20.248116 7.614826 11.093863 139 123 103
-20.265344 7.626516 11.091993 139 123 103
-19.667068 7.181348 10.187509 100 79 46
-19.604481 7.140398 10.192383 100 79 46
-20.464424 7.807636 11.274071 103 76 33
-20.822311 8.030546 10.363846 119 96 60
-20.034537 7.507287 10.166477 91 66 32
-30.945224 15.097687 10.713526 106 79 46
-20.366040 7.813893 11.483177 107 82 46
-30.261489 14.687597 10.577956 123 96 60
-20.302645 7.767995 10.267995 150 128 106
-30.767289 15.116912 11.012942 113 87 53
-31.880661 16.215624 22.451340 67 55 32
-20.268882 7.794602 10.382510 113 99 77
-20.315503 7.824611 10.374037 113 99 77
-20.233995 7.822869 10.340368 131 110 86
-19.903974 7.589959 10.192137 104 79 45
-19.897053 7.585462 10.191408 104 79 45
-30.742358 15.230806 10.518459 123 95 57
-33.873385 17.612460 15.912519 108 94 72
-33.849335 17.601187 15.681992 109 96 75
-33.843337 17.659379 15.558425 126 113 92
-32.153257 16.555639 16.930558 99 75 39
-33.816327 17.697449 15.574007 126 113 92
-33.763518 17.683297 15.985373 128 112 92
-30.081917 14.948713 10.968055 133 103 64
-30.087502 14.952757 10.967935 133 103 64
-30.369556 15.232255 10.819242 144 115 73
-30.460204 15.306371 10.476189 157 121 72
-31.987985 16.608869 16.977807 117 93 54
-31.956814 16.587528 16.970542 117 93 54
-30.902661 15.674761 11.485679 120 96 64
-33.899995 17.952011 15.256692 123 105 77
-27.996402 13.587629 10.350849 114 84 46
-28.210053 13.772040 10.484294 129 98 55
-28.116092 13.754401 10.430542 123 97 58
-31.166476 16.279463 22.221053 100 81 48
-28.207483 13.904902 10.353780 95 71 37
-28.155132 13.892207 10.468416 111 83 47
-30.779364 15.776299 10.551364 70 52 33
-30.735378 15.748013 10.555473 70 52 33
-30.670582 16.062827 22.435173 143 111 61
-33.362503 17.962170 18.921974 71 62 45
-33.702832 18.135484 15.499721 144 126 101
-33.411583 18.073056 20.562256 98 87 62
-28.302283 14.125980 10.274374 86 65 34
-33.173841 17.693459 11.815079 109 86 52
-28.156055 14.134332 10.260381 46 33 19
-33.285170 18.139423 18.926935 89 82 66
-32.971781 17.716758 11.812687 93 70 40
-28.500643 14.481543 10.295259 36 27 15
-28.468223 14.459206 10.299839 36 27 15
-19.812455 8.189649 9.968013 84 65 38
-28.445972 14.488928 10.355448 80 60 35
-32.869363 17.754152 11.705442 89 68 43
-32.892742 17.766467 11.525789 91 70 45
-31.153541 16.790785 19.702661 80 64 39
-32.751006 17.795556 11.597469 88 69 44
-30.964968 16.786628 22.023085 46 37 21
-28.762447 14.864632 10.467527 113 86 50
-32.667322 17.853578 11.703632 89 68 41
-31.830221 17.254053 10.506811 103 80 55
-32.552019 17.916733 11.792467 87 65 36
-31.707479 17.247637 10.194144 104 79 51
-26.380607 13.352743 10.124407 73 59 40
-26.138504 13.166652 9.890329 99 81 57
-32.552619 18.008969 12.437639 94 73 44
-31.658443 17.296276 10.252929 131 103 77
-29.068900 15.382987 10.221603 111 86 57
-31.595850 17.277944 10.445178 128 99 73
-31.715867 17.364588 10.035369 131 106 80
-30.830959 17.064470 22.241414 96 83 56
-26.274597 13.466502 10.197232 79 67 50
-31.696800 17.538687 10.571368 102 79 53
-29.065419 15.584378 10.186703 109 84 55
-31.464768 17.378433 10.438454 131 101 76
-31.445763 17.393525 10.359748 131 101 76
-25.731729 13.128812 10.119767 64 51 35
-26.121733 13.423030 10.089335 64 51 35
-26.220770 13.524737 10.210912 80 65 47
-21.978847 10.371078 10.133071 85 65 40
-26.034993 13.412860 9.953456 66 56 41
-31.275027 17.442790 10.438236 133 105 77
-26.045689 13.521305 10.168975 111 99 80
-20.519190 9.379682 10.197267 109 82 46
-26.048416 13.523534 10.037973 62 52 38
-20.373442 9.300925 10.161566 109 82 46
-26.046247 13.557670 9.934546 62 52 38
-30.898422 17.232229 10.397051 147 120 90
-20.506759 9.443838 10.129280 109 82 46
-20.429562 9.453225 10.108251 121 94 59
-25.899516 13.634326 10.252151 109 96 76
-20.643583 9.693641 10.118983 133 103 62
-25.830342 13.737874 10.093140 63 51 36
-25.750253 13.696250 10.095626 63 51 36
-25.714623 13.760203 10.105966 78 63 47
-25.663630 13.769887 10.172905 83 69 49
-25.664066 13.777189 10.040060 65 54 40
-25.626405 13.786418 10.246033 116 102 84
-25.599760 13.766435 9.948421 65 54 40
-25.631283 13.839509 10.124325 74 61 47
-25.597874 13.895507 9.947962 109 95 78
-25.519739 13.851778 10.195725 101 85 64
-25.604330 13.935273 10.076949 99 84 66
-28.512778 16.439900 16.951986 146 121 86
-28.515395 16.442159 16.953434 146 121 86
-25.420601 13.886362 10.193954 105 90 69
-25.435540 13.900552 10.234481 105 90 69
-30.365750 17.787843 10.497880 151 123 90
-21.164335 10.642443 10.029347 80 62 37
-30.273308 17.825374 10.170225 134 107 76
-30.267174 17.819365 10.171138 134 107 76
-30.254467 17.836378 10.270541 102 76 58
-30.274645 17.860465 10.379744 132 107 80
-30.281492 17.866177 10.378629 132 107 80
-25.290975 13.984452 10.117518 13 11 8
-30.192107 17.914720 10.207462 130 104 78
-25.245689 13.911422 7.275011 128 111 89
-30.099416 17.914611 10.123379 118 92 71
-25.149822 13.919802 7.170454 64 49 27
-30.081015 17.948808 10.436765 120 93 77
-25.221397 14.134802 10.317923 164 135 73
-25.423063 14.301364 10.367604 142 113 62
-25.250869 14.035775 7.203770 121 97 67
-25.206938 14.095893 8.741097 140 120 94
-25.005818 13.794713 5.482524 94 70 46
-25.079482 14.066824 10.089853 60 52 43
-25.130188 14.130539 10.248969 117 99 77
-25.487504 14.415103 10.359553 142 113 62
-30.423794 18.314164 10.173294 66 43 48
-25.122009 14.116979 9.916112 72 61 49
-29.832934 17.906254 10.135248 63 42 52
-25.236282 14.139402 7.205949 121 97 67
-25.069247 14.191923 9.840538 82 66 45
-25.202465 14.120273 5.468700 108 86 62
-27.936642 16.808095 16.798564 124 99 63
-27.982647 16.770810 10.216226 87 68 42
-27.485146 16.612419 10.607800 114 89 62
-24.445011 14.172558 8.669006 109 85 56
-24.411599 14.220589 8.694423 145 123 98
-24.412713 14.221232 8.694015 145 123 98
-24.477006 14.221653 7.151501 102 79 52
-24.473075 14.191575 5.414820 116 98 77
-24.474925 14.196791 5.414399 81 63 41
-27.529875 17.210252 21.909056 40 36 21
-24.434469 14.257182 7.179293 99 73 47
-28.111157 17.397271 10.429958 145 113 68
-24.427402 14.238649 5.440568 88 68 42
-24.317292 14.313760 8.697823 137 118 93
-27.509928 17.207641 16.929474 114 92 59
-29.780879 18.961999 10.660752 104 81 56
-24.387881 14.380230 5.441061 116 94 67
-24.386041 14.377308 5.440235 105 85 64
-26.634060 16.462103 10.280591 120 93 57
-26.686218 16.574070 10.272138 120 93 57
-26.648717 16.555501 9.857600 63 46 22
-26.800308 16.814719 10.187659 96 74 46
-27.757681 17.984353 19.462563 117 94 52
-25.051311 16.002840 10.068635 46 46 46
-24.497371 15.551034 10.259725 27 25 22
-24.336033 15.790416 10.689710 164 123 73
-27.432449 19.463154 19.684309 83 66 33
-22.767849 15.055529 9.228312 129 114 93
-22.824706 15.035032 6.284853 142 119 91
-22.987079 15.345112 9.413997 92 87 81
-22.858005 15.175646 7.999418 114 94 72
-23.226570 15.774131 9.675524 143 112 66
-23.688860 16.264522 10.281523 144 114 76
-23.632247 16.365019 10.498755 171 138 85
-23.385077 16.317344 10.177398 174 148 106
-23.297361 16.439267 10.419220 182 155 112
-24.932886 18.175016 18.863332 101 90 65
-23.309180 16.506905 10.709268 192 163 119
-23.351552 16.593347 10.546499 196 167 125
-23.058708 16.572103 10.755225 190 160 112
-23.091648 16.615106 10.294747 178 149 107
-21.108214 15.614872 8.704918 122 103 71
-21.864573 17.177866 10.058427 55 41 23
-22.874645 18.557921 11.362411 142 116 77
-20.227912 15.911767 8.772066 159 139 112
-21.451954 17.279122 10.277267 106 80 48
-21.202579 17.182960 10.829511 119 95 60
-21.196364 17.233959 10.514399 111 89 59
-21.004833 17.037691 10.168100 114 88 51
-20.937025 17.269247 10.288862 130 100 60
-20.220937 17.402479 10.183287 166 141 96
-20.434588 17.783181 10.287393 177 143 90
-21.775385 19.375470 10.930634 38 29 19
-19.982946 17.879854 10.355105 188 115 71
-18.780991 16.607448 6.889177 152 134 112
-18.761340 16.759378 8.107412 150 132 107
-21.267553 20.130749 19.798732 85 70 46
-19.235810 17.657268 9.968136 172 145 96
-20.934726 19.907814 16.869271 106 93 65
-20.431854 19.807169 17.816299 187 160 107
-1.143893 -2.012503 14.531563 189 157 111
-17.674211 17.225476 11.702669 192 148 86
-16.794692 17.497173 10.222821 130 109 81
-16.749885 17.793091 10.272171 82 53 25
-16.593788 17.665481 11.469343 150 111 55
-0.734080 -1.750520 13.043871 160 155 147
-0.773052 -1.658331 14.229218 138 120 95
-0.734706 -1.633045 14.228022 108 100 92
-0.732367 -1.635926 14.227987 108 100 92
-0.733376 -1.618501 14.327008 162 149 136
-0.660148 -1.644935 12.850315 105 92 80
-17.521648 22.147712 20.391797 90 68 37
-14.708807 18.354839 7.322095 71 56 38
-14.724524 18.373191 6.864317 66 55 38
-16.951710 23.677750 11.551681 89 69 50
-15.001065 21.000379 10.347756 105 61 27
-13.910010 19.517138 10.282941 147 58 20
-13.747642 19.409480 9.763693 125 67 33
-13.954746 19.766459 10.293485 146 69 23
-14.894938 23.573338 11.909021 84 64 47
-14.167680 22.661273 11.441837 146 101 48
-10.802559 17.313254 10.309895 19 17 12
-10.851580 17.600908 10.777447 80 67 51
-10.850261 17.623015 10.849940 37 31 24
-10.840084 17.630215 10.930759 23 19 14
-10.840674 17.655440 11.168735 87 63 42
-10.102569 16.461066 10.041085 72 61 47
-9.971853 16.266265 10.331924 129 93 51
-10.794703 17.669994 11.155644 81 68 57
-9.920893 16.216712 10.245707 91 73 47
-10.499036 17.240192 10.426392 84 52 27
-9.960024 16.376041 10.299613 129 95 51
-9.909659 16.293843 10.317133 129 95 51
-9.859534 16.275664 9.651518 103 93 82
-14.505909 24.122069 11.193559 61 42 27
-9.754310 16.249311 9.408420 97 72 48
-9.581662 16.385147 8.578274 96 88 78
-9.427670 16.451476 9.278262 120 110 102
-9.493574 16.594849 10.209598 149 143 135
-9.278538 16.345346 8.523016 94 82 67
-9.269762 16.353921 8.668537 126 121 110
-8.813077 15.623107 10.435354 143 113 70
-9.373455 16.578060 8.741871 117 108 99
-9.227295 16.387885 8.777549 108 95 84
-9.168628 16.389376 7.290674 152 132 108
-9.148867 16.414411 7.404245 165 142 118
-9.106110 16.356519 7.242820 160 136 113
-9.311375 16.715925 10.208677 150 142 133
-9.090219 16.402280 7.360515 162 139 115
-9.125203 16.571349 8.793121 110 92 77
-9.160299 16.643125 10.214572 147 139 132
-9.167765 16.667729 10.153360 147 139 132
-9.029213 16.514496 8.771022 132 121 110
-9.046131 16.556478 8.825314 132 121 110
-8.891910 16.430053 10.194366 119 111 104
-8.957478 16.604156 8.938003 141 133 128
-9.012403 16.707133 8.818267 141 126 117
-8.972266 16.658531 10.070490 110 79 50
-8.851550 16.546490 8.367706 85 74 59
-8.956570 16.845110 8.830243 154 142 130
-13.959357 26.008219 13.210024 162 138 107
-8.742113 16.586820 8.201651 93 82 64
-8.769932 16.668566 10.201907 147 136 124
-8.796719 16.701503 8.933557 132 128 123
-8.747096 16.619483 8.890903 154 148 144
-8.777919 16.682027 9.434808 106 94 86
-8.748589 16.662726 8.280598 145 125 101
-8.838951 16.834885 9.172814 115 103 96
-8.783954 16.826334 9.060376 123 119 117
-8.704415 16.715844 9.019978 124 120 118
-8.726945 16.764594 9.691046 112 104 98
-8.270289 15.930794 8.025948 152 131 107
-8.617341 16.630106 9.665385 162 159 160
-8.657941 16.722965 9.213551 131 130 128
-8.651942 16.717914 9.131200 130 128 126
-8.717827 16.843606 9.437014 136 133 131
-13.928663 26.382744 12.954863 156 133 101
-8.565789 16.581566 8.606214 156 134 111
-8.668502 16.768390 8.839549 133 120 109
-8.618946 16.684506 7.750004 150 127 104
-8.608349 16.666210 7.755062 154 138 119
-8.565767 16.593569 8.082690 137 119 96
-8.617195 16.753502 8.350599 148 124 98
-8.548725 16.640496 7.841918 154 133 110
-8.518536 16.728929 9.479737 136 127 121
-8.226241 16.233671 8.939339 137 130 126
-8.619331 16.969774 10.232690 138 129 117
-8.696367 17.155956 10.023044 101 94 86
-8.671688 17.132768 8.775572 123 112 100
-8.521405 16.924764 10.116849 104 98 91
-8.388653 16.806118 8.966167 114 101 88
-8.349459 16.756794 7.833634 157 134 109
-8.288066 16.842560 8.753900 161 152 142
-8.276779 16.843392 7.691432 145 124 99
-9.199921 18.677388 11.721207 131 100 69
-8.281159 17.065123 8.728580 163 157 150
-8.178196 16.864480 8.034238 153 131 106
-8.064516 16.969026 8.763117 145 129 115
-8.151973 17.274021 8.655201 145 129 115
-7.970857 16.957702 7.710219 149 128 107
-7.926379 16.886999 6.881320 154 132 107
-7.932543 16.979034 8.406115 160 144 121
-8.010870 17.124487 9.584800 100 65 35
-7.840625 16.881603 7.180886 155 131 107
-7.982704 17.138101 8.720614 135 119 105
-7.595599 16.504749 8.338592 165 148 128
-7.822830 17.003398 7.471082 149 126 103
-7.844471 17.092231 8.577359 167 146 124
-7.884413 17.248477 8.584140 167 146 124
-8.056542 17.586340 9.961000 170 168 166
-7.920094 17.366201 8.852846 166 162 160
-7.644850 16.867306 9.151819 122 118 117
-7.771491 17.134332 9.267319 125 122 121
-7.641895 16.930808 9.973521 166 162 160
-7.614071 17.165826 9.839624 167 163 162
-7.645972 17.222766 8.752841 141 137 135
-7.674559 17.380777 9.939439 152 147 144
-7.470221 17.132257 8.730355 143 124 105
-7.683867 17.572257 8.768776 117 102 86
-7.471542 17.187247 8.811772 119 107 95
-7.513003 17.293833 8.634220 143 124 105
-12.208703 26.799635 13.157211 151 128 101
-7.310748 17.108296 9.292925 142 140 141
-7.424425 17.420314 8.841980 124 106 89
-7.330103 17.252993 7.133100 146 124 101
-7.227947 17.027719 9.772602 120 82 43
-7.271825 17.288085 8.753579 154 150 147
-7.308416 17.362178 8.212731 157 136 114
-7.253185 17.336417 8.858409 126 112 101
-7.233037 17.346892 7.895055 143 120 99
-7.372350 17.664246 8.434658 118 107 91
-7.175526 17.370377 7.830411 94 77 61
-7.258387 17.554010 8.879800 131 118 107
-7.066650 17.164774 8.757329 222 221 223
-7.126885 17.370259 8.877074 122 113 105
-7.280666 17.827584 8.544118 200 193 185
-7.002705 17.431029 7.734497 160 137 113
-7.042918 17.679784 6.953293 155 131 109
-6.981702 17.668219 8.469921 163 143 125
